375
0	0	0	
1	0	0	
1	1	0	
0	1	0	
0	0	1	
1	0	1	
1	1	1	
0	1	1	
0.5	0.5	0	
0.5	0	0.5	
1	0.5	0.5	
0	0.5	0.5	
0.5	0.5	1	
0.5	1	0.5	
0.5	0	0	
1	0.5	0	
1	0	0.5	
0.75	0	0.25	
1	0.25	0.25	
0.75	0.25	0	
0	0.5	0	
0	0	0.5	
0.5	0.5	0.5	
0.5	0	1	
1	0.5	1	
0	0.5	1	
0.25	0	0.75	
0	0.25	0.75	
0.25	0.25	1	
0.5	1	0	
1	1	0.5	
0	1	0.5	
0.5	1	1	
0.75	0.75	1	
1	0.75	0.75	
0.75	1	0.75	
0.25	0.25	0	
0.25	0	0.25	
0	0.25	0.25	
1	0.75	0.25	
0.75	0.75	0	
0.75	1	0.25	
0.75	0	0.75	
1	0.25	0.75	
0.75	0.25	1	
0.75	0.25	0.5	
0.5	0.25	0.25	
1	0	0.25	
0.75	0.5	0.25	
0.75	0	0	
1	0.25	0	
0.875	0.125	0	
1	0.125	0.125	
0.875	0	0.125	
0.25	0.75	0	
0	0.75	0.25	
0.25	1	0.25	
0	0.75	0.75	
0.25	1	0.75	
0.25	0.75	1	
0.25	0.25	0.5	
0.5	0.25	0.75	
0	0	0.75	
0.25	0.5	0.75	
0.25	0	1	
0	0.25	1	
0.75	0.5	0.75	
0.5	0.75	0.75	
1	0.75	1	
0.75	0.75	0.5	
0.75	1	1	
1	1	0.75	
0.875	1	0.875	
1	0.875	0.875	
0.875	0.875	1	
0.25	0.5	0.25	
0.25	0	0	
0	0.25	0	
0	0	0.25	
1	0.75	0	
0.5	0.75	0.25	
1	1	0.25	
0.75	1	0	
1	0	0.75	
0.75	0	1	
1	0.25	1	
0.875	0.125	1	
1	0.125	0.875	
0.875	0	0.875	
0.75	0	0.5	
0.875	0	0.375	
1	0.25	0.5	
1	0.125	0.375	
0.75	0.25	0.25	
1	0.125	0.625	
0.875	0	0.625	
0.75	0.25	0.75	
0.5	0	0.25	
0.5	0.25	0	
0.625	0.125	0	
0.625	0	0.125	
0.375	0	0.125	
0.375	0.125	0	
0.5	0.25	0.5	
0.25	0.25	0.25	
0.625	0	0.375	
0.125	0	0.125	
0	0.125	0.125	
0.125	0.125	0	
1	0.5	0.25	
0.75	0.5	0	
1	0.375	0.125	
0.875	0.375	0	
0.625	0.375	0	
0.875	0.625	0	
1	0.625	0.125	
0.5	0.5	0.25	
0.75	0.75	0.25	
0.75	0.5	0.5	
1	0.375	0.375	
0.625	0.375	0.375	
0.875	0.875	0	
0.875	1	0.125	
1	0.875	0.125	
0.875	0.25	0.125	
0.75	0.125	0.125	
0.875	0.125	0.25	
0	0.75	0	
0.25	0.75	0.5	
0.25	1	0	
0	1	0.25	
0.125	1	0.125	
0	0.875	0.125	
0.125	0.875	0	
0	1	0.75	
0	0.75	1	
0.25	1	1	
0.125	0.875	1	
0.125	1	0.875	
0	0.875	0.875	
0.25	0	0.5	
0.125	0	0.625	
0	0.25	0.5	
0	0.125	0.625	
0.25	0.25	0.75	
0.125	0	0.375	
0	0.125	0.375	
0.375	0	0.375	
0.125	0.125	1	
0	0.125	0.875	
0.125	0	0.875	
0.5	0	0.75	
0.5	0.25	1	
0.375	0.125	1	
0.375	0	0.875	
0.625	0.125	1	
0.625	0	0.875	
0.625	0	0.625	
0.375	0	0.625	
0	0.375	0.625	
0.25	0.5	0.5	
0.5	0.5	0.75	
0.25	0.5	1	
0.375	0.375	1	
0.125	0.375	1	
0	0.375	0.875	
0.25	0.75	0.75	
0.125	0.625	1	
0	0.5625	0.8125	
0.375	0.375	0.625	
0.75	0.5	1	
1	0.375	0.625	
1	0.53125	0.78125	
0.875	0.625	1	
0.75	0.75	0.75	
0.625	0.375	0.625	
0.875	0.375	1	
1	0.378906	0.871094	
0.625	0.375	1	
0.5	0.75	1	
0.5	1	0.75	
0.625	1	0.875	
0.625	0.875	1	
0.375	0.625	1	
0.625	0.625	1	
0.375	0.875	1	
0.375	1	0.875	
1	0.75	0.5	
0.75	1	0.5	
1	0.875	0.625	
0.875	1	0.625	
0.625	1	0.625	
1	0.625	0.625	
0.625	0.625	0.625	
0.875	1	0.375	
1	0.875	0.375	
1	0.625	0.375	
0.875	0.875	0.75	
0.75	0.875	0.875	
0.875	0.75	0.875	
0.25	0.5	0	
0	0.5	0.25	
0	0.375	0.125	
0.125	0.375	0	
0	0.375	0.375	
0.375	0.375	0	
0.375	0.375	0.375	
0.25	0.75	0.25	
0	0.625	0.125	
0.125	0.625	0	
0.5	0.75	0	
0.5	1	0.25	
0.625	0.875	0	
0.625	1	0.125	
0.625	1	0.375	
0.625	0.625	0	
0.625	0.625	0.375	
0.375	0.875	0	
0.375	1	0.125	
0.375	0.625	0	
0.875	0.25	0.875	
0.75	0.125	0.875	
0.875	0.125	0.75	
0.875	0.125	0.5	
0.75	0.125	0.375	
0.875	0.25	0.375	
0.875	0.25	0.625	
0.75	0.125	0.625	
0.5	0.125	0.125	
0.625	0.25	0.125	
0.625	0.125	0.25	
0.375	0.125	0.25	
0.25	0.125	0.125	
0.375	0.25	0.125	
0.5	0.125	0.375	
0.625	0.125	0.5	
0.125	0.125	0.25	
0.125	0.25	0.125	
0.875	0.375	0.25	
0.875	0.5	0.125	
0.75	0.375	0.125	
0.625	0.5	0.125	
0.5	0.375	0.125	
0.75	0.625	0.125	
0.875	0.75	0.125	
0.875	0.625	0.25	
0.375	0.625	0.375	
0.875	0.375	0.5	
0.875	0.5	0.375	
0.75	0.875	0.125	
0.875	0.875	0.25	
0	0.75	0.5	
0.25	1	0.5	
0	0.875	0.375	
0.125	1	0.375	
0.375	1	0.375	
0	0.625	0.375	
0.375	1	0.625	
0	0.875	0.625	
0.125	1	0.625	
0	0.625	0.625	
0.375	0.625	0.625	
0.125	0.875	0.25	
0.25	0.875	0.125	
0.125	0.75	0.125	
0.25	0.875	0.875	
0.125	0.75	0.875	
0.125	0.875	0.75	
0.125	0.125	0.5	
0.25	0.125	0.625	
0.125	0.125	0.75	
0.125	0.25	0.625	
0.25	0.125	0.375	
0.125	0.25	0.375	
0.375	0.125	0.5	
0.125	0.25	0.875	
0.25	0.125	0.875	
0.5	0.125	0.875	
0.375	0.25	0.875	
0.375	0.125	0.75	
0.625	0.25	0.875	
0.625	0.125	0.75	
0.5	0.125	0.625	
0.125	0.375	0.5	
0.125	0.375	0.75	
0.125	0.5	0.625	
0.5	0.375	0.875	
0.25	0.375	0.875	
0.375	0.5	0.875	
0.25	0.625	0.875	
0.875	0.5	0.625	
0.875	0.5	1	
1	0.625	1	
0.75	0.625	0.875	
0.5	0.4375	0.625	
0.6875	0.375	0.5	
0.75	0.375	0.875	
0.625	0.5	0.875	
0.625	0.875	0.75	
0.5	0.875	0.875	
0.625	0.75	0.875	
0.5	0.625	0.875	
0.375	0.75	0.875	
0.375	0.875	0.75	
0.875	0.75	0.625	
0.875	0.875	0.5	
0.75	0.875	0.625	
0.5	0.875	0.625	
0.625	0.875	0.5	
0.875	0.625	0.5	
0.625	0.5	0.5625	
0.75	0.875	0.375	
0.875	0.75	0.375	
0.875	0.638393	0.75	
0.125	0.5	0.125	
0.125	0.375	0.25	
0.25	0.375	0.125	
0.125	0.5	0.375	
0.375	0.5	0.125	
0.3125	0.375	0.5	
0.5	0.4375	0.375	
0.125	0.625	0.25	
0.25	0.625	0.125	
0.5	0.875	0.125	
0.625	0.75	0.125	
0.625	0.875	0.25	
0.5	0.875	0.375	
0.5	0.625	0.125	
0.6875	0.625	0.5	
0.6875	0.5	0.375	
0.375	0.75	0.125	
0.375	0.875	0.25	
0.78125	0.375	0.65625	
0.625	0.21875	0.375	
0.625	0.375	0.21875	
0.375	0.5	0.4375	
0.5	0.6875	0.5	
0.5	0.625	0.3125	
0.78125	0.375	0.375	
0.125	0.75	0.375	
0.125	0.875	0.5	
0.25	0.875	0.375	
0.375	0.875	0.5	
0.125	0.625	0.5	
0.25	0.875	0.625	
0.125	0.75	0.625	
0.3125	0.625	0.5	
0.3125	0.5	0.625	
0.5	0.625	0.6875	
0.375	0.21875	0.375	
0.375	0.21875	0.625	
0.625	0.21875	0.625	
0.21875	0.375	0.625	
0.1375	0.625	0.7375	
0.125	0.5	1	
0.375	0.375	0.78125	
1	0.653846	0.858173	
0.87318	0.467346	0.846974	
0.625	0.375	0.78125	
0.625	0.625	0.78125	
0.375	0.625	0.78125	
0.625	0.78125	0.625	
0.78125	0.625	0.625	
0.78125	0.625	0.375	
0.21875	0.375	0.375	
0.375	0.375	0.21875	
0.625	0.625	0.21875	
0.625	0.78125	0.375	
0.375	0.625	0.21875	
0.21875	0.625	0.375	
0.375	0.78125	0.375	
0.375	0.78125	0.625	
0.140625	0.523438	0.851562	
1	0.373108	0.748108	
0.861481	0.346967	0.771025	
